ply
format ascii 1.0
comment https://github.com/mikedh/trimesh
element vertex 1124
property float x
property float y
property float z
property uchar red
property uchar green
property uchar blue
property uchar alpha
end_header
0.31005585 -1.41575825 -0.04465283 0 0 0 0
-0.87009263 1.15218890 -0.13378912 0 0 0 0
1.26234949 -0.67786735 -0.22241791 0 0 0 0
-1.41374362 0.08719672 -0.31020296 0 0 0 0
1.30046976 0.50380468 -0.39681134 0 0 0 0
-0.95201463 -0.98179764 -0.48191446 0 0 0 0
0.44379768 1.25940633 -0.56518954 0 0 0 0
0.11976311 -1.29244983 -0.64632064 0 0 0 0
-0.62786841 1.08749998 -0.72500002 0 0 0 0
0.98655635 -0.69836879 -0.80092919 0 0 0 0
-1.13742268 0.21262115 -0.87382025 0 0 0 0
1.06787944 0.26858246 -0.94339651 0 0 0 0
-0.81100130 -0.65261030 -1.00939417 0 0 0 0
0.43542337 0.87444806 -1.07156289 0 0 0 0
-0.02799392 -0.90860838 -1.12966681 0 0 0 0
-0.32655171 0.77150893 -1.18348551 0 0 0 0
0.56410521 -0.51424980 -1.23281479 0 0 0 0
-0.65370452 0.20795839 -1.27746773 0 0 0 0
0.60144901 0.07447553 -1.31727469 0 0 0 0
-0.44534409 -0.27574539 -1.35208476 0 0 0 0
0.24280383 0.36642775 -1.38176584 0 0 0 0
-0.05425078 -0.34948933 -1.40620553 0 0 0 0
-0.07291389 0.25626576 -1.42531097 0 0 0 0
0.11593239 -0.13531686 -1.43900979 0 0 0 0
-0.08109262 0.03730853 -1.44724977 0 0 0 0
0.00000000 0.00000000 -1.45000005 0 0 0 0
0.00000000 0.00000000 1.50000000 0 0 0 0
-0.08216447 -0.02412567 1.49755371 0 0 0 0
0.14384352 0.09244262 1.49022257 0 0 0 0
-0.16750243 -0.19330812 1.47803080 0 0 0 0
0.14113523 0.30904305 1.46101785 0 0 0 0
-0.06014208 -0.41829738 1.43923950 0 0 0 0
-0.07173722 0.49894333 1.41276658 0 0 0 0
0.24256296 -0.53113884 1.38168550 0 0 0 0
-0.43340757 0.50017899 1.34609759 0 0 0 0
0.62050807 -0.39877632 1.30611908 0 0 0 0
-0.77811158 0.22847418 1.26188028 0 0 0 0
0.88167787 0.00000000 1.21352553 0 0 0 0
-0.91105652 -0.26751032 1.16121244 0 0 0 0
0.85325181 0.54835165 1.10511172 0 0 0 0
-0.70443219 -0.81295806 1.04540634 0 0 0 0
0.47092459 1.03118098 0.98229110 0 0 0 0
-0.16904916 -1.17576277 0.91597182 0 0 0 0
-0.17621535 1.22560465 0.84666485 0 0 0 0
0.53361034 -1.16844368 0.77459621 0 0 0 0
-0.86877060 1.00261474 0.70000100 0 0 0 0
1.14784670 -0.73767626 0.62312251 0 0 0 0
-1.34117544 0.39380464 0.54421157 0 0 0 0
1.42658472 0.00000000 0.46352550 0 0 0 0
-1.39195597 -0.40871513 0.38132751 0 0 0 0
1.23674691 0.79480898 0.29788569 0 0 0 0
-0.97229278 -1.12208569 0.21347226 0 0 0 0
0.62083673 1.35944283 0.12836251 0 0 0 0
-0.21338519 -1.48412669 0.04283408 0 0 0 0
-0.21338519 1.48412669 -0.04283408 0 0 0 0
0.62083673 -1.35944283 -0.12836251 0 0 0 0
-0.97229278 1.12208569 -0.21347226 0 0 0 0
1.23674691 -0.79480898 -0.29788569 0 0 0 0
-1.39195597 0.40871513 -0.38132751 0 0 0 0
1.42658472 0.00000000 -0.46352550 0 0 0 0
-1.34117544 -0.39380464 -0.54421157 0 0 0 0
1.14784670 0.73767626 -0.62312251 0 0 0 0
-0.86877060 -1.00261474 -0.70000100 0 0 0 0
0.53361034 1.16844368 -0.77459621 0 0 0 0
-0.17621535 -1.22560465 -0.84666485 0 0 0 0
-0.16904916 1.17576277 -0.91597182 0 0 0 0
0.47092459 -1.03118098 -0.98229110 0 0 0 0
-0.70443219 0.81295806 -1.04540634 0 0 0 0
0.85325181 -0.54835165 -1.10511172 0 0 0 0
-0.91105652 0.26751032 -1.16121244 0 0 0 0
0.88167787 0.00000000 -1.21352553 0 0 0 0
-0.77811158 -0.22847418 -1.26188028 0 0 0 0
0.62050807 0.39877632 -1.30611908 0 0 0 0
-0.43340757 -0.50017899 -1.34609759 0 0 0 0
0.24256296 0.53113884 -1.38168550 0 0 0 0
-0.07173722 -0.49894333 -1.41276658 0 0 0 0
-0.06014208 0.41829738 -1.43923950 0 0 0 0
0.14113523 -0.30904305 -1.46101785 0 0 0 0
-0.16750243 0.19330812 -1.47803080 0 0 0 0
0.14384352 -0.09244262 -1.49022257 0 0 0 0
-0.08216447 0.02412567 -1.49755371 0 0 0 0
0.00000000 0.00000000 -1.50000000 0 0 0 0
0.00000000 0.00000000 1.54999995 0 0 0 0
-0.08144408 -0.01312184 1.54780316 0 0 0 0
0.15641791 0.05174568 1.54121900 0 0 0 0
-0.21877526 -0.11368163 1.53026593 0 0 0 0
0.26300290 0.19539563 1.51497531 0 0 0 0
-0.28450039 -0.29217750 1.49539018 0 0 0 0
0.27981737 0.39836526 1.47156632 0 0 0 0
-0.24683763 -0.50761575 1.44357109 0 0 0 0
0.18490110 0.61320859 1.41148388 0 0 0 0
-0.09485806 -0.70837039 1.37539577 0 0 0 0
-0.02094721 0.78660315 1.33540881 0 0 0 0
0.15876281 -0.84200317 1.29163659 0 0 0 0
-0.31358203 0.86955452 1.24420309 0 0 0 0
0.47935575 -0.86538428 1.19324267 0 0 0 0
-0.64925510 0.82696718 1.13889992 0 0 0 0
0.81597251 -0.75327069 1.08132887 0 0 0 0
-0.97204792 0.64483279 1.02069259 0 0 0 0
1.11020482 -0.50376964 0.95716316 0 0 0 0
-1.22368193 0.33371121 0.89092046 0 0 0 0
1.30654430 -0.13966841 0.82215244 0 0 0 0
-1.35396111 -0.07216303 0.75105387 0 0 0 0
1.36243558 0.29465339 0.67782634 0 0 0 0
-1.32997930 -0.52003354 0.60267746 0 0 0 0
1.25621939 0.74022007 0.52582026 0 0 0 0
-1.14243686 -0.94715703 0.44747251 0 0 0 0
0.99153131 1.13315809 0.36785638 0 0 0 0
-0.80791610 -1.29123545 0.28719753 0 0 0 0
0.59734547 1.41539955 0.20572457 0 0 0 0
-0.36668366 -1.50091612 0.12366846 0 0 0 0
0.12362464 1.54451108 0.04126181 0 0 0 0
0.12362464 -1.54451108 -0.04126181 0 0 0 0
-0.36668366 1.50091612 -0.12366846 0 0 0 0
0.59734547 -1.41539955 -0.20572457 0 0 0 0
-0.80791610 1.29123545 -0.28719753 0 0 0 0
0.99153131 -1.13315809 -0.36785638 0 0 0 0
-1.14243686 0.94715703 -0.44747251 0 0 0 0
1.25621939 -0.74022007 -0.52582026 0 0 0 0
-1.32997930 0.52003354 -0.60267746 0 0 0 0
1.36243558 -0.29465339 -0.67782634 0 0 0 0
-1.35396111 0.07216303 -0.75105387 0 0 0 0
1.30654430 0.13966841 -0.82215244 0 0 0 0
-1.22368193 -0.33371121 -0.89092046 0 0 0 0
1.11020482 0.50376964 -0.95716316 0 0 0 0
-0.97204792 -0.64483279 -1.02069259 0 0 0 0
0.81597251 0.75327069 -1.08132887 0 0 0 0
-0.64925510 -0.82696718 -1.13889992 0 0 0 0
0.47935575 0.86538428 -1.19324267 0 0 0 0
-0.31358203 -0.86955452 -1.24420309 0 0 0 0
0.15876281 0.84200317 -1.29163659 0 0 0 0
-0.02094721 -0.78660315 -1.33540881 0 0 0 0
-0.09485806 0.70837039 -1.37539577 0 0 0 0
0.18490110 -0.61320859 -1.41148388 0 0 0 0
-0.24683763 0.50761575 -1.44357109 0 0 0 0
0.27981737 -0.39836526 -1.47156632 0 0 0 0
-0.28450039 0.29217750 -1.49539018 0 0 0 0
0.26300290 -0.19539563 -1.51497531 0 0 0 0
-0.21877526 0.11368163 -1.53026593 0 0 0 0
0.15641791 -0.05174568 -1.54121900 0 0 0 0
-0.08144408 0.01312184 -1.54780316 0 0 0 0
0.00000000 0.00000000 -1.54999995 0 0 0 0
0.00000000 0.00000000 1.60000002 0 0 0 0
-0.07965428 -0.00397538 1.59801102 0 0 0 0
0.15851691 0.01586201 1.59204924 0 0 0 0
-0.23580414 -0.03554175 1.58212936 0 0 0 0
0.31074783 0.06281903 1.56827593 0 0 0 0
-0.38260317 -0.09742274 1.55052364 0 0 0 0
0.45065606 0.13900898 1.52891648 0 0 0 0
-0.51423007 -0.18716444 1.50350821 0 0 0 0
0.57269347 0.24141054 1.47436190 0 0 0 0
-0.62546521 -0.30120817 1.44155014 0 0 0 0
0.67202073 0.36596298 1.40515447 0 0 0 0
-0.71189743 -0.43503147 1.36526537 0 0 0 0
0.74469900 0.50772721 1.32198203 0 0 0 0
-0.77009940 -0.58332765 1.27541196 0 0 0 0
0.78784621 0.66108143 1.22567105 0 0 0 0
-0.79776305 -0.74021590 1.17288303 0 0 0 0
0.79975134 0.81994456 1.11717892 0 0 0 0
-0.79379135 -0.89947498 1.05869734 0 0 0 0
0.77994233 0.97801673 0.99758369 0 0 0 0
-0.75834185 -1.05478930 0.93398988 0 0 0 0
0.72920465 1.12902963 0.86807400 0 0 0 0
-0.69282031 -1.20000005 0.80000001 0 0 0 0
0.64955038 1.26699495 0.72993708 0 0 0 0
-0.59982497 -1.32934868 0.65805936 0 0 0 0
0.54413819 1.38644147 0.58454561 0 0 0 0
-0.48304352 -1.43770599 0.50957865 0 0 0 0
0.41714817 1.48263276 0.43334475 0 0 0 0
-0.34710699 -1.52077508 0.35603350 0 0 0 0
0.27361611 1.55175412 0.27783710 0 0 0 0
-0.19740592 -1.57526183 0.19894993 0 0 0 0
0.11923381 1.59106469 0.11956815 0 0 0 0
-0.03987671 -1.59900558 0.03988911 0 0 0 0
-0.03987671 1.59900558 -0.03988911 0 0 0 0
0.11923381 -1.59106469 -0.11956815 0 0 0 0
-0.19740592 1.57526183 -0.19894993 0 0 0 0
0.27361611 -1.55175412 -0.27783710 0 0 0 0
-0.34710699 1.52077508 -0.35603350 0 0 0 0
0.41714817 -1.48263276 -0.43334475 0 0 0 0
-0.48304352 1.43770599 -0.50957865 0 0 0 0
0.54413819 -1.38644147 -0.58454561 0 0 0 0
-0.59982497 1.32934868 -0.65805936 0 0 0 0
0.64955038 -1.26699495 -0.72993708 0 0 0 0
-0.69282031 1.20000005 -0.80000001 0 0 0 0
0.72920465 -1.12902963 -0.86807400 0 0 0 0
-0.75834185 1.05478930 -0.93398988 0 0 0 0
0.77994233 -0.97801673 -0.99758369 0 0 0 0
-0.79379135 0.89947498 -1.05869734 0 0 0 0
0.79975134 -0.81994456 -1.11717892 0 0 0 0
-0.79776305 0.74021590 -1.17288303 0 0 0 0
0.78784621 -0.66108143 -1.22567105 0 0 0 0
-0.77009940 0.58332765 -1.27541196 0 0 0 0
0.74469900 -0.50772721 -1.32198203 0 0 0 0
-0.71189743 0.43503147 -1.36526537 0 0 0 0
0.67202073 -0.36596298 -1.40515447 0 0 0 0
-0.62546521 0.30120817 -1.44155014 0 0 0 0
0.57269347 -0.24141054 -1.47436190 0 0 0 0
-0.51423007 0.18716444 -1.50350821 0 0 0 0
0.45065606 -0.13900898 -1.52891648 0 0 0 0
-0.38260317 0.09742274 -1.55052364 0 0 0 0
0.31074783 -0.06281903 -1.56827593 0 0 0 0
-0.23580414 0.03554175 -1.58212936 0 0 0 0
0.15851691 -0.01586201 -1.59204924 0 0 0 0
-0.07965428 0.00397538 -1.59801102 0 0 0 0
0.00000000 0.00000000 -1.60000002 0 0 0 0
0.00000000 0.00000000 1.64999998 0 0 0 0
-0.07725423 0.00362506 1.64818645 0 0 0 0
0.15382954 -0.01446840 1.64274991 0 0 0 0
-0.22905301 0.03243472 1.63370216 0 0 0 0
0.30226353 -0.05736613 1.62106323 0 0 0 0
-0.37281775 0.08904354 1.60486078 0 0 0 0
0.44009566 -0.12718855 1.58513057 0 0 0 0
-0.50350595 0.17146596 1.56191587 0 0 0 0
0.56249148 -0.22148664 1.53526771 0 0 0 0
-0.61653376 0.27681103 1.50524473 0 0 0 0
0.66515791 -0.33695292 1.47191298 0 0 0 0
-0.70793664 0.40138379 1.43534553 0 0 0 0
0.74449402 -0.46953741 1.39562285 0 0 0 0
-0.77450877 0.54081488 1.35283244 0 0 0 0
0.79771703 -0.61458969 1.30706811 0 0 0 0
-0.81391501 0.69021368 1.25843060 0 0 0 0
0.82296026 -0.76702213 1.20702672 0 0 0 0
-0.82477325 0.84434015 1.15296960 0 0 0 0
0.81933814 -0.92148817 1.09637797 0 0 0 0
-0.80670267 0.99778819 1.03737628 0 0 0 0
0.78697789 -1.07256985 0.97609413 0 0 0 0
-0.76033705 1.14517581 0.91266638 0 0 0 0
0.72701442 -1.21496797 0.84723240 0 0 0 0
-0.68730271 1.28133321 0.77993602 0 0 0 0
0.64155096 -1.34368813 0.71092516 0 0 0 0
-0.59016126 1.40148473 0.64035153 0 0 0 0
0.53358519 -1.45421529 0.56837028 0 0 0 0
-0.47231993 1.50141621 0.49513966 0 0 0 0
0.40690392 -1.54267275 0.42082056 0 0 0 0
-0.33791205 1.57762241 0.34557644 0 0 0 0
0.26595056 -1.60595798 0.26957265 0 0 0 0
-0.19165193 1.62743044 0.19297628 0 0 0 0
0.11566902 -1.64185107 0.11595571 0 0 0 0
-0.03866962 1.64909327 0.03868025 0 0 0 0
-0.03866962 -1.64909327 -0.03868025 0 0 0 0
0.11566902 1.64185107 -0.11595571 0 0 0 0
-0.19165193 -1.62743044 -0.19297628 0 0 0 0
0.26595056 1.60595798 -0.26957265 0 0 0 0
-0.33791205 -1.57762241 -0.34557644 0 0 0 0
0.40690392 1.54267275 -0.42082056 0 0 0 0
-0.47231993 -1.50141621 -0.49513966 0 0 0 0
0.53358519 1.45421529 -0.56837028 0 0 0 0
-0.59016126 -1.40148473 -0.64035153 0 0 0 0
0.64155096 1.34368813 -0.71092516 0 0 0 0
-0.68730271 -1.28133321 -0.77993602 0 0 0 0
0.72701442 1.21496797 -0.84723240 0 0 0 0
-0.76033705 -1.14517581 -0.91266638 0 0 0 0
0.78697789 1.07256985 -0.97609413 0 0 0 0
-0.80670267 -0.99778819 -1.03737628 0 0 0 0
0.81933814 0.92148817 -1.09637797 0 0 0 0
-0.82477325 -0.84434015 -1.15296960 0 0 0 0
0.82296026 0.76702213 -1.20702672 0 0 0 0
-0.81391501 -0.69021368 -1.25843060 0 0 0 0
0.79771703 0.61458969 -1.30706811 0 0 0 0
-0.77450877 -0.54081488 -1.35283244 0 0 0 0
0.74449402 0.46953741 -1.39562285 0 0 0 0
-0.70793664 -0.40138379 -1.43534553 0 0 0 0
0.66515791 0.33695292 -1.47191298 0 0 0 0
-0.61653376 -0.27681103 -1.50524473 0 0 0 0
0.56249148 0.22148664 -1.53526771 0 0 0 0
-0.50350595 -0.17146596 -1.56191587 0 0 0 0
0.44009566 0.12718855 -1.58513057 0 0 0 0
-0.37281775 -0.08904354 -1.60486078 0 0 0 0
0.30226353 0.05736613 -1.62106323 0 0 0 0
-0.22905301 -0.03243472 -1.63370216 0 0 0 0
0.15382954 0.01446840 -1.64274991 0 0 0 0
-0.07725423 -0.00362506 -1.64818645 0 0 0 0
0.00000000 0.00000000 -1.64999998 0 0 0 0
0.00000000 0.00000000 1.70000005 0 0 0 0
-0.07453515 0.00995257 1.69833612 0 0 0 0
0.14498229 -0.03942144 1.69334757 0 0 0 0
-0.20739491 0.08725279 1.68504429 0 0 0 0
0.25810495 -0.15156578 1.67344248 0 0 0 0
-0.29385090 0.22981422 1.65856481 0 0 0 0
0.31189272 -0.31887046 1.64044034 0 0 0 0
-0.31011027 0.41512838 1.61910474 0 0 0 0
0.28708172 -0.51462245 1.59459960 0 0 0 0
-0.24213944 0.61315924 1.56697297 0 0 0 0
0.17540184 -0.70645684 1.53627896 0 0 0 0
-0.08777960 0.79028827 1.50257754 0 0 0 0
-0.01904345 -0.86062336 1.46593475 0 0 0 0
0.14265476 0.91376626 1.42642236 0 0 0 0
-0.27998126 -0.94648224 1.38411772 0 0 0 0
0.42737904 0.95611131 1.33910358 0 0 0 0
-0.58074230 -0.94066393 1.29146802 0 0 0 0
0.73562771 0.89889663 1.24130440 0 0 0 0
-0.88739032 -0.83036429 1.18871093 0 0 0 0
1.03132749 0.73544747 1.13379037 0 0 0 0
-1.16282511 -0.61535484 1.07665050 0 0 0 0
1.27750313 0.47209868 1.01740289 0 0 0 0
-1.37135410 -0.30844584 0.95616376 0 0 0 0
1.44087207 0.12784471 0.89305294 0 0 0 0
-1.48316634 0.06566969 0.82819384 0 0 0 0
1.49605775 -0.26758894 0.76171350 0 0 0 0
-1.47815287 0.47306031 0.69374216 0 0 0 0
1.42889595 -0.67702675 0.62441272 0 0 0 0
-1.34859467 0.87437433 0.55386096 0 0 0 0
1.23842025 -1.06008232 0.48222503 0 0 0 0
-1.10038114 1.22937071 0.40964508 0 0 0 0
0.93727189 -1.37784195 0.33626327 0 0 0 0
-0.75259733 1.50161123 0.26222318 0 0 0 0
0.55047572 -1.59742188 0.18766980 0 0 0 0
-0.33552289 1.66274238 0.11274903 0 0 0 0
0.11272144 -1.69584179 0.03760755 0 0 0 0
0.11272144 1.69584179 -0.03760755 0 0 0 0
-0.33552289 -1.66274238 -0.11274903 0 0 0 0
0.55047572 1.59742188 -0.18766980 0 0 0 0
-0.75259733 -1.50161123 -0.26222318 0 0 0 0
0.93727189 1.37784195 -0.33626327 0 0 0 0
-1.10038114 -1.22937071 -0.40964508 0 0 0 0
1.23842025 1.06008232 -0.48222503 0 0 0 0
-1.34859467 -0.87437433 -0.55386096 0 0 0 0
1.42889595 0.67702675 -0.62441272 0 0 0 0
-1.47815287 -0.47306031 -0.69374216 0 0 0 0
1.49605775 0.26758894 -0.76171350 0 0 0 0
-1.48316634 -0.06566969 -0.82819384 0 0 0 0
1.44087207 -0.12784471 -0.89305294 0 0 0 0
-1.37135410 0.30844584 -0.95616376 0 0 0 0
1.27750313 -0.47209868 -1.01740289 0 0 0 0
-1.16282511 0.61535484 -1.07665050 0 0 0 0
1.03132749 -0.73544747 -1.13379037 0 0 0 0
-0.88739032 0.83036429 -1.18871093 0 0 0 0
0.73562771 -0.89889663 -1.24130440 0 0 0 0
-0.58074230 0.94066393 -1.29146802 0 0 0 0
0.42737904 -0.95611131 -1.33910358 0 0 0 0
-0.27998126 0.94648224 -1.38411772 0 0 0 0
0.14265476 -0.91376626 -1.42642236 0 0 0 0
-0.01904345 0.86062336 -1.46593475 0 0 0 0
-0.08777960 -0.79028827 -1.50257754 0 0 0 0
0.17540184 0.70645684 -1.53627896 0 0 0 0
-0.24213944 -0.61315924 -1.56697297 0 0 0 0
0.28708172 0.51462245 -1.59459960 0 0 0 0
-0.31011027 -0.41512838 -1.61910474 0 0 0 0
0.31189272 0.31887046 -1.64044034 0 0 0 0
-0.29385090 -0.22981422 -1.65856481 0 0 0 0
0.25810495 0.15156578 -1.67344248 0 0 0 0
-0.20739491 -0.08725279 -1.68504429 0 0 0 0
0.14498229 0.03942144 -1.69334757 0 0 0 0
-0.07453515 -0.00995257 -1.69833612 0 0 0 0
0.00000000 0.00000000 -1.70000005 0 0 0 0
0.00000000 0.00000000 1.75000000 0 0 0 0
-0.07168100 0.01523627 1.74846494 0 0 0 0
0.13377614 -0.05956098 1.74386251 0 0 0 0
-0.17744425 0.12892079 1.73620069 0 0 0 0
0.19528262 -0.21688333 1.72549307 0 0 0 0
-0.18192273 0.31509942 1.71175826 0 0 0 0
0.13448645 -0.41390675 1.69502056 0 0 0 0
-0.05287109 0.50303477 1.67530906 0 0 0 0
-0.06015787 -0.57236391 1.65265870 0 0 0 0
0.19907430 0.61268771 1.62710881 0 0 0 0
-0.35589457 -0.61642748 1.59870458 0 0 0 0
0.52065825 0.57824957 1.56749558 0 0 0 0
-0.68205708 -0.49554348 1.53353667 0 0 0 0
0.82817215 0.36872599 1.49688745 0 0 0 0
-0.94727260 -0.20134901 1.45761216 0 0 0 0
1.02862418 0.00000000 1.41577971 0 0 0 0
-1.06325483 0.22600180 1.37146354 0 0 0 0
1.04462647 -0.46509767 1.32474136 0 0 0 0
-0.96916795 0.70414174 1.27569509 0 0 0 0
0.83663219 -0.92917418 1.22441089 0 0 0 0
-0.65025175 1.12626898 1.17097855 0 0 0 0
0.41667795 -1.28240287 1.11549199 0 0 0 0
-0.14570509 1.38629127 1.05804849 0 0 0 0
-0.15020856 -1.42913902 0.99874872 0 0 0 0
0.45659545 1.40525627 0.93769687 0 0 0 0
-0.75777221 -1.31250000 0.87500000 0 0 0 0
1.03772545 1.15251076 0.81076807 0 0 0 0
-1.28103578 -0.93072701 0.74511379 0 0 0 0
1.47378683 0.65617216 0.67815226 0 0 0 0
-1.60440028 -0.34102580 0.61000109 0 0 0 0
1.66434896 0.00000000 0.54077977 0 0 0 0
-1.64870155 0.35044232 0.47060969 0 0 0 0
1.55646503 -0.69298285 0.39961404 0 0 0 0
-1.39070237 1.01040447 0.32791731 0 0 0 0
1.15841675 -1.28655207 0.25564530 0 0 0 0
-0.87020665 1.50724220 0.18292481 0 0 0 0
0.53971261 -1.66106474 0.10988341 0 0 0 0
-0.18288469 1.74003160 0.03664923 0 0 0 0
-0.18288469 -1.74003160 -0.03664923 0 0 0 0
0.53971261 1.66106474 -0.10988341 0 0 0 0
-0.87020665 -1.50724220 -0.18292481 0 0 0 0
1.15841675 1.28655207 -0.25564530 0 0 0 0
-1.39070237 -1.01040447 -0.32791731 0 0 0 0
1.55646503 0.69298285 -0.39961404 0 0 0 0
-1.64870155 -0.35044232 -0.47060969 0 0 0 0
1.66434896 0.00000000 -0.54077977 0 0 0 0
-1.60440028 0.34102580 -0.61000109 0 0 0 0
1.47378683 -0.65617216 -0.67815226 0 0 0 0
-1.28103578 0.93072701 -0.74511379 0 0 0 0
1.03772545 -1.15251076 -0.81076807 0 0 0 0
-0.75777221 1.31250000 -0.87500000 0 0 0 0
0.45659545 -1.40525627 -0.93769687 0 0 0 0
-0.15020856 1.42913902 -0.99874872 0 0 0 0
-0.14570509 -1.38629127 -1.05804849 0 0 0 0
0.41667795 1.28240287 -1.11549199 0 0 0 0
-0.65025175 -1.12626898 -1.17097855 0 0 0 0
0.83663219 0.92917418 -1.22441089 0 0 0 0
-0.96916795 -0.70414174 -1.27569509 0 0 0 0
1.04462647 0.46509767 -1.32474136 0 0 0 0
-1.06325483 -0.22600180 -1.37146354 0 0 0 0
1.02862418 0.00000000 -1.41577971 0 0 0 0
-0.94727260 0.20134901 -1.45761216 0 0 0 0
0.82817215 -0.36872599 -1.49688745 0 0 0 0
-0.68205708 0.49554348 -1.53353667 0 0 0 0
0.52065825 -0.57824957 -1.56749558 0 0 0 0
-0.35589457 0.61642748 -1.59870458 0 0 0 0
0.19907430 -0.61268771 -1.62710881 0 0 0 0
-0.06015787 0.57236391 -1.65265870 0 0 0 0
-0.05287109 -0.50303477 -1.67530906 0 0 0 0
0.13448645 0.41390675 -1.69502056 0 0 0 0
-0.18192273 -0.31509942 -1.71175826 0 0 0 0
0.19528262 0.21688333 -1.72549307 0 0 0 0
-0.17744425 -0.12892079 -1.73620069 0 0 0 0
0.13377614 0.05956098 -1.74386251 0 0 0 0
-0.07168100 -0.01523627 -1.74846494 0 0 0 0
0.00000000 0.00000000 -1.75000000 0 0 0 0
0.00000000 0.00000000 1.79999995 0 0 0 0
-0.06880695 0.01966429 1.79857695 0 0 0 0
0.12141337 -0.07556944 1.79430985 0 0 0 0
-0.14377126 0.15882535 1.78720570 0 0 0 0
0.12589188 -0.25581756 1.77727556 0 0 0 0
-0.06328703 0.34987149 1.76453531 0 0 0 0
-0.04222455 -0.42331934 1.74900484 0 0 0 0
0.18244673 0.45973921 1.73070884 0 0 0 0
-0.34349298 -0.44611627 1.70967627 0 0 0 0
0.50716949 0.37467912 1.68594027 0 0 0 0
-0.65291607 -0.24419753 1.65953851 0 0 0 0
0.76010406 0.06058190 1.63051271 0 0 0 0
-0.81044626 0.16330284 1.59890866 0 0 0 0
0.79025930 -0.40861318 1.56477654 0 0 0 0
-0.69232577 0.65221268 1.52817011 0 0 0 0
0.51714206 -0.86890996 1.48914731 0 0 0 0
-0.27339780 1.03402913 1.44776976 0 0 0 0
-0.02239280 -1.12605190 1.40410316 0 0 0 0
0.34709781 1.12905777 1.35821629 0 0 0 0
-0.67291778 -1.03470051 1.31018186 0 0 0 0
0.96990442 0.84350133 1.26007569 0 0 0 0
-1.20881033 -0.56530404 1.20797718 0 0 0 0
1.36399269 0.21881622 1.15396857 0 0 0 0
-1.41608095 0.16974594 1.09813523 0 0 0 0
1.35413635 -0.56880409 1.04056561 0 0 0 0
-1.17707288 0.94416654 0.98135060 0 0 0 0
0.89418060 -1.26212776 0.92058384 0 0 0 0
-0.52467322 1.49262643 0.85836148 0 0 0 0
0.09628021 -1.61215746 0.79478192 0 0 0 0
0.35700628 1.60615253 0.72994560 0 0 0 0
-0.79783279 -1.47058713 0.66395509 0 0 0 0
1.18877220 1.21264732 0.59691471 0 0 0 0
-1.49569392 -0.85037184 0.52893049 0 0 0 0
1.69089973 0.41128677 0.46010995 0 0 0 0
-1.75572813 0.06985686 0.39056185 0 0 0 0
1.68237424 -0.55404276 0.32039621 0 0 0 0
-1.47474647 1.00137949 0.24972396 0 0 0 0
1.14827037 -1.37461150 0.17865683 0 0 0 0
-0.72864735 1.64242446 0.10730723 0 0 0 0
0.24967459 -1.78224063 0.03578794 0 0 0 0
0.24967459 1.78224063 -0.03578794 0 0 0 0
-0.72864735 -1.64242446 -0.10730723 0 0 0 0
1.14827037 1.37461150 -0.17865683 0 0 0 0
-1.47474647 -1.00137949 -0.24972396 0 0 0 0
1.68237424 0.55404276 -0.32039621 0 0 0 0
-1.75572813 -0.06985686 -0.39056185 0 0 0 0
1.69089973 -0.41128677 -0.46010995 0 0 0 0
-1.49569392 0.85037184 -0.52893049 0 0 0 0
1.18877220 -1.21264732 -0.59691471 0 0 0 0
-0.79783279 1.47058713 -0.66395509 0 0 0 0
0.35700628 -1.60615253 -0.72994560 0 0 0 0
0.09628021 1.61215746 -0.79478192 0 0 0 0
-0.52467322 -1.49262643 -0.85836148 0 0 0 0
0.89418060 1.26212776 -0.92058384 0 0 0 0
-1.17707288 -0.94416654 -0.98135060 0 0 0 0
1.35413635 0.56880409 -1.04056561 0 0 0 0
-1.41608095 -0.16974594 -1.09813523 0 0 0 0
1.36399269 -0.21881622 -1.15396857 0 0 0 0
-1.20881033 0.56530404 -1.20797718 0 0 0 0
0.96990442 -0.84350133 -1.26007569 0 0 0 0
-0.67291778 1.03470051 -1.31018186 0 0 0 0
0.34709781 -1.12905777 -1.35821629 0 0 0 0
-0.02239280 1.12605190 -1.40410316 0 0 0 0
-0.27339780 -1.03402913 -1.44776976 0 0 0 0
0.51714206 0.86890996 -1.48914731 0 0 0 0
-0.69232577 -0.65221268 -1.52817011 0 0 0 0
0.79025930 0.40861318 -1.56477654 0 0 0 0
-0.81044626 -0.16330284 -1.59890866 0 0 0 0
0.76010406 -0.06058190 -1.63051271 0 0 0 0
-0.65291607 0.24419753 -1.65953851 0 0 0 0
0.50716949 -0.37467912 -1.68594027 0 0 0 0
-0.34349298 0.44611627 -1.70967627 0 0 0 0
0.18244673 -0.45973921 -1.73070884 0 0 0 0
-0.04222455 0.42331934 -1.74900484 0 0 0 0
-0.06328703 -0.34987149 -1.76453531 0 0 0 0
0.12589188 0.25581756 -1.77727556 0 0 0 0
-0.14377126 -0.15882535 -1.78720570 0 0 0 0
0.12141337 0.07556944 -1.79430985 0 0 0 0
-0.06880695 -0.01966429 -1.79857695 0 0 0 0
0.00000000 0.00000000 -1.79999995 0 0 0 0
0.00000000 0.00000000 1.85000002 0 0 0 0
-0.06278802 0.02703315 1.84873652 0 0 0 0
0.09389520 -0.09925057 1.84494793 0 0 0 0
-0.07040891 0.19221792 1.83863938 0 0 0 0
-0.01510008 -0.27208945 1.82981944 0 0 0 0
0.15152279 0.30429876 1.81850028 0 0 0 0
-0.31062734 -0.26282862 1.80469716 0 0 0 0
0.45276961 0.13791743 1.78842902 0 0 0 0
-0.53576064 0.05964965 1.76971817 0 0 0 0
0.52501369 -0.29881993 1.74859011 0 0 0 0
-0.40273896 0.53331256 1.72507358 0 0 0 0
0.17406976 -0.71057439 1.69920087 0 0 0 0
0.13142878 0.78291827 1.67100728 0 0 0 0
-0.46349746 -0.71855903 1.64053130 0 0 0 0
0.75971246 0.51016599 1.60781455 0 0 0 0
-0.95731699 -0.17895356 1.57290173 0 0 0 0
1.00609958 -0.22684288 1.53584051 0 0 0 0
-0.87972730 0.63915926 1.49668145 0 0 0 0
0.58312279 -0.98186111 1.45547819 0 0 0 0
-0.15414980 1.18498266 1.41228688 0 0 0 0
-0.34107628 -1.19875884 1.36716652 0 0 0 0
0.81870037 1.00466788 1.32017875 0 0 0 0
-1.19173706 -0.62115675 1.27138782 0 0 0 0
1.38616824 0.10265236 1.22086036 0 0 0 0
-1.35551393 0.46829811 1.16866541 0 0 0 0
1.09102237 -0.99459833 1.11487412 0 0 0 0
-0.62534654 1.38158393 1.05956006 0 0 0 0
0.02872798 -1.55437112 1.00279868 0 0 0 0
0.60191184 1.47234678 0.94466770 0 0 0 0
-1.15922427 -1.13799739 0.88524640 0 0 0 0
1.54422259 0.59823501 0.82461596 0 0 0 0
-1.68424094 0.06227776 0.76285917 0 0 0 0
1.54674733 -0.73483884 0.70006043 0 0 0 0
-1.14637375 1.30516005 0.63630551 0 0 0 0
0.54370135 -1.67334068 0.57168144 0 0 0 0
0.16418023 1.77178693 0.50627655 0 0 0 0
-0.85982305 -1.57779777 0.44018012 0 0 0 0
1.42550945 1.11845136 0.37348247 0 0 0 0
-1.76375008 -0.46677783 0.30627468 0 0 0 0
1.81453073 -0.27023125 0.23864855 0 0 0 0
-1.56619203 0.96974504 0.17069647 0 0 0 0
1.05793214 -1.51418996 0.10251123 0 0 0 0
-0.37341869 1.81159866 0.03418598 0 0 0 0
-0.37341869 -1.81159866 -0.03418598 0 0 0 0
1.05793214 1.51418996 -0.10251123 0 0 0 0
-1.56619203 -0.96974504 -0.17069647 0 0 0 0
1.81453073 0.27023125 -0.23864855 0 0 0 0
-1.76375008 0.46677783 -0.30627468 0 0 0 0
1.42550945 -1.11845136 -0.37348247 0 0 0 0
-0.85982305 1.57779777 -0.44018012 0 0 0 0
0.16418023 -1.77178693 -0.50627655 0 0 0 0
0.54370135 1.67334068 -0.57168144 0 0 0 0
-1.14637375 -1.30516005 -0.63630551 0 0 0 0
1.54674733 0.73483884 -0.70006043 0 0 0 0
-1.68424094 -0.06227776 -0.76285917 0 0 0 0
1.54422259 -0.59823501 -0.82461596 0 0 0 0
-1.15922427 1.13799739 -0.88524640 0 0 0 0
0.60191184 -1.47234678 -0.94466770 0 0 0 0
0.02872798 1.55437112 -1.00279868 0 0 0 0
-0.62534654 -1.38158393 -1.05956006 0 0 0 0
1.09102237 0.99459833 -1.11487412 0 0 0 0
-1.35551393 -0.46829811 -1.16866541 0 0 0 0
1.38616824 -0.10265236 -1.22086036 0 0 0 0
-1.19173706 0.62115675 -1.27138782 0 0 0 0
0.81870037 -1.00466788 -1.32017875 0 0 0 0
-0.34107628 1.19875884 -1.36716652 0 0 0 0
-0.15414980 -1.18498266 -1.41228688 0 0 0 0
0.58312279 0.98186111 -1.45547819 0 0 0 0
-0.87972730 -0.63915926 -1.49668145 0 0 0 0
1.00609958 0.22684288 -1.53584051 0 0 0 0
-0.95731699 0.17895356 -1.57290173 0 0 0 0
0.75971246 -0.51016599 -1.60781455 0 0 0 0
-0.46349746 0.71855903 -1.64053130 0 0 0 0
0.13142878 -0.78291827 -1.67100728 0 0 0 0
0.17406976 0.71057439 -1.69920087 0 0 0 0
-0.40273896 -0.53331256 -1.72507358 0 0 0 0
0.52501369 0.29881993 -1.74859011 0 0 0 0
-0.53576064 -0.05964965 -1.76971817 0 0 0 0
0.45276961 -0.13791743 -1.78842902 0 0 0 0
-0.31062734 0.26282862 -1.80469716 0 0 0 0
0.15152279 -0.30429876 -1.81850028 0 0 0 0
-0.01510008 0.27208945 -1.82981944 0 0 0 0
-0.07040891 -0.19221792 -1.83863938 0 0 0 0
0.09389520 0.09925057 -1.84494793 0 0 0 0
-0.06278802 -0.02703315 -1.84873652 0 0 0 0
0.00000000 0.00000000 -1.85000002 0 0 0 0
0.00000000 0.00000000 1.89999998 0 0 0 0
-0.06011688 0.02970135 1.89881647 0 0 0 0
0.08143218 -0.10644829 1.89526713 0 0 0 0
-0.03874482 0.19705440 1.88935661 0 0 0 0
-0.06996254 -0.25806490 1.88109219 0 0 0 0
0.22087869 0.25000349 1.87048411 0 0 0 0
-0.36967254 -0.15121587 1.85754573 0 0 0 0
0.46355370 -0.03278025 1.84229302 0 0 0 0
-0.45694235 0.26741236 1.82474506 0 0 0 0
0.32646158 -0.49565467 1.80492365 0 0 0 0
-0.08094301 0.65182936 1.78285348 0 0 0 0
-0.23672882 -0.67927784 1.75856221 0 0 0 0
0.55707395 0.54732770 1.73207998 0 0 0 0
-0.79948753 -0.26289287 1.70343971 0 0 0 0
0.89222580 -0.12682188 1.67267728 0 0 0 0
-0.79200172 0.54192996 1.63983083 0 0 0 0
0.49807161 -0.88661593 1.60494137 0 0 0 0
-0.05678397 1.07144165 1.56805241 0 0 0 0
-0.44527179 -1.03597808 1.52920973 0 0 0 0
0.89862573 0.76612842 1.48846197 0 0 0 0
-1.19523692 -0.30149388 1.44585967 0 0 0 0
1.25426805 -0.26968944 1.40145612 0 0 0 0
-1.04317272 0.82760817 1.35530639 0 0 0 0
0.58873826 -1.24656093 1.30746818 0 0 0 0
0.02512931 1.42365789 1.25800109 0 0 0 0
-0.67309421 -1.30390787 1.20696664 0 0 0 0
1.21457160 0.89560646 1.15442848 0 0 0 0
-1.52481103 -0.27194959 1.10045195 0 0 0 0
1.52389646 -0.44214958 1.04510450 0 0 0 0
-1.19687212 1.09565222 0.98845494 0 0 0 0
0.60000449 -1.54402936 0.93057388 0 0 0 0
0.14879598 1.68175185 0.87153345 0 0 0 0
-0.89378566 -1.46723056 0.81140721 0 0 0 0
1.47451282 0.93429476 0.75027007 0 0 0 0
-1.76106298 -0.18719044 0.68819815 0 0 0 0
1.68354678 -0.62024939 0.62526888 0 0 0 0
-1.24905670 1.31700683 0.56156051 0 0 0 0
0.54199594 -1.75187886 0.49715260 0 0 0 0
0.29266107 1.82691467 0.43212524 0 0 0 0
-1.07977808 -1.51977408 0.36655954 0 0 0 0
1.65161943 0.88984865 0.30053711 0 0 0 0
-1.88434350 -0.06654269 0.23414028 0 0 0 0
1.72534001 -0.77792138 0.16745174 0 0 0 0
-1.20527518 1.46533287 0.10055456 0 0 0 0
0.43205795 -1.84991932 0.03353211 0 0 0 0
0.43205795 1.84991932 -0.03353211 0 0 0 0
-1.20527518 -1.46533287 -0.10055456 0 0 0 0
1.72534001 0.77792138 -0.16745174 0 0 0 0
-1.88434350 0.06654269 -0.23414028 0 0 0 0
1.65161943 -0.88984865 -0.30053711 0 0 0 0
-1.07977808 1.51977408 -0.36655954 0 0 0 0
0.29266107 -1.82691467 -0.43212524 0 0 0 0
0.54199594 1.75187886 -0.49715260 0 0 0 0
-1.24905670 -1.31700683 -0.56156051 0 0 0 0
1.68354678 0.62024939 -0.62526888 0 0 0 0
-1.76106298 0.18719044 -0.68819815 0 0 0 0
1.47451282 -0.93429476 -0.75027007 0 0 0 0
-0.89378566 1.46723056 -0.81140721 0 0 0 0
0.14879598 -1.68175185 -0.87153345 0 0 0 0
0.60000449 1.54402936 -0.93057388 0 0 0 0
-1.19687212 -1.09565222 -0.98845494 0 0 0 0
1.52389646 0.44214958 -1.04510450 0 0 0 0
-1.52481103 0.27194959 -1.10045195 0 0 0 0
1.21457160 -0.89560646 -1.15442848 0 0 0 0
-0.67309421 1.30390787 -1.20696664 0 0 0 0
0.02512931 -1.42365789 -1.25800109 0 0 0 0
0.58873826 1.24656093 -1.30746818 0 0 0 0
-1.04317272 -0.82760817 -1.35530639 0 0 0 0
1.25426805 0.26968944 -1.40145612 0 0 0 0
-1.19523692 0.30149388 -1.44585967 0 0 0 0
0.89862573 -0.76612842 -1.48846197 0 0 0 0
-0.44527179 1.03597808 -1.52920973 0 0 0 0
-0.05678397 -1.07144165 -1.56805241 0 0 0 0
0.49807161 0.88661593 -1.60494137 0 0 0 0
-0.79200172 -0.54192996 -1.63983083 0 0 0 0
0.89222580 0.12682188 -1.67267728 0 0 0 0
-0.79948753 0.26289287 -1.70343971 0 0 0 0
0.55707395 -0.54732770 -1.73207998 0 0 0 0
-0.23672882 0.67927784 -1.75856221 0 0 0 0
-0.08094301 -0.65182936 -1.78285348 0 0 0 0
0.32646158 0.49565467 -1.80492365 0 0 0 0
-0.45694235 -0.26741236 -1.82474506 0 0 0 0
0.46355370 0.03278025 -1.84229302 0 0 0 0
-0.36967254 0.15121587 -1.85754573 0 0 0 0
0.22087869 -0.25000349 -1.87048411 0 0 0 0
-0.06996254 0.25806490 -1.88109219 0 0 0 0
-0.03874482 -0.19705440 -1.88935661 0 0 0 0
0.08143218 0.10644829 -1.89526713 0 0 0 0
-0.06011688 -0.02970135 -1.89881647 0 0 0 0
0.00000000 0.00000000 -1.89999998 0 0 0 0
0.00000000 0.00000000 1.95000005 0 0 0 0
-0.05758410 0.03196178 1.94888747 0 0 0 0
0.06963494 -0.11171893 1.94555128 0 0 0 0
-0.00999198 0.19702502 1.93999517 0 0 0 0
-0.11568597 -0.23584190 1.93222547 0 0 0 0
0.26904359 0.18725987 1.92225111 0 0 0 0
-0.39051816 -0.03971181 1.91008341 0 0 0 0
0.41979793 -0.18014948 1.89573622 0 0 0 0
-0.31865370 0.41166666 1.87922597 0 0 0 0
0.08839719 -0.57702637 1.86057150 0 0 0 0
0.22445098 0.60603571 1.83979416 0 0 0 0
-0.53722578 -0.46119323 1.81691754 0 0 0 0
0.75325257 0.15479733 1.79196775 0 0 0 0
-0.79105526 0.24819519 1.76497328 0 0 0 0
0.61195064 -0.64377171 1.73596501 0 0 0 0
-0.23720223 0.91612899 1.70497584 0 0 0 0
-0.25150049 -0.97135216 1.67204142 0 0 0 0
0.72981048 0.76776022 1.63719904 0 0 0 0
-1.06288540 -0.33348244 1.60048866 0 0 0 0
1.14349604 -0.23499441 1.56195211 0 0 0 0
-0.92529052 0.79433584 1.52163339 0 0 0 0
0.44113892 -1.19111061 1.47957838 0 0 0 0
0.19979732 1.30420804 1.43583512 0 0 0 0
-0.83684957 -1.08112049 1.39045358 0 0 0 0
1.29880524 0.55736125 1.34348547 0 0 0 0
-1.45043457 0.14749478 1.29498446 0 0 0 0
1.23181808 -0.85737073 1.24500585 0 0 0 0
-0.67909336 1.38442600 1.19360662 0 0 0 0
-0.08009893 -1.57941628 1.14084554 0 0 0 0
0.85643232 1.37401855 1.08678269 0 0 0 0
-1.44691801 -0.80310500 1.03147984 0 0 0 0
1.68874955 0.00000000 0.97500002 0 0 0 0
-1.50450206 0.83506680 0.91740769 0 0 0 0
0.92606729 -1.48573744 0.85876858 0 0 0 0
-0.09009090 1.77644122 0.79914963 0 0 0 0
-0.79477936 -1.62026787 0.73861885 0 0 0 0
1.50086164 1.04463053 0.67724526 0 0 0 0
-1.84095275 -0.18720660 0.61509889 0 0 0 0
1.71860325 -0.73751074 0.55225074 0 0 0 0
-1.15550327 1.49278724 0.48877245 0 0 0 0
0.28819451 -1.88123441 0.42473644 0 0 0 0
0.66558987 1.79714620 0.36021581 0 0 0 0
-1.46251631 -1.25552905 0.29528415 0 0 0 0
1.89674854 0.38979176 0.23001561 0 0 0 0
-1.85394061 0.58167762 0.16448458 0 0 0 0
1.34176111 -1.41153193 0.09876588 0 0 0 0
-0.48870271 1.88748109 0.03293449 0 0 0 0
-0.48870271 -1.88748109 -0.03293449 0 0 0 0
1.34176111 1.41153193 -0.09876588 0 0 0 0
-1.85394061 -0.58167762 -0.16448458 0 0 0 0
1.89674854 -0.38979176 -0.23001561 0 0 0 0
-1.46251631 1.25552905 -0.29528415 0 0 0 0
0.66558987 -1.79714620 -0.36021581 0 0 0 0
0.28819451 1.88123441 -0.42473644 0 0 0 0
-1.15550327 -1.49278724 -0.48877245 0 0 0 0
1.71860325 0.73751074 -0.55225074 0 0 0 0
-1.84095275 0.18720660 -0.61509889 0 0 0 0
1.50086164 -1.04463053 -0.67724526 0 0 0 0
-0.79477936 1.62026787 -0.73861885 0 0 0 0
-0.09009090 -1.77644122 -0.79914963 0 0 0 0
0.92606729 1.48573744 -0.85876858 0 0 0 0
-1.50450206 -0.83506680 -0.91740769 0 0 0 0
1.68874955 0.00000000 -0.97500002 0 0 0 0
-1.44691801 0.80310500 -1.03147984 0 0 0 0
0.85643232 -1.37401855 -1.08678269 0 0 0 0
-0.08009893 1.57941628 -1.14084554 0 0 0 0
-0.67909336 -1.38442600 -1.19360662 0 0 0 0
1.23181808 0.85737073 -1.24500585 0 0 0 0
-1.45043457 -0.14749478 -1.29498446 0 0 0 0
1.29880524 -0.55736125 -1.34348547 0 0 0 0
-0.83684957 1.08112049 -1.39045358 0 0 0 0
0.19979732 -1.30420804 -1.43583512 0 0 0 0
0.44113892 1.19111061 -1.47957838 0 0 0 0
-0.92529052 -0.79433584 -1.52163339 0 0 0 0
1.14349604 0.23499441 -1.56195211 0 0 0 0
-1.06288540 0.33348244 -1.60048866 0 0 0 0
0.72981048 -0.76776022 -1.63719904 0 0 0 0
-0.25150049 0.97135216 -1.67204142 0 0 0 0
-0.23720223 -0.91612899 -1.70497584 0 0 0 0
0.61195064 0.64377171 -1.73596501 0 0 0 0
-0.79105526 -0.24819519 -1.76497328 0 0 0 0
0.75325257 -0.15479733 -1.79196775 0 0 0 0
-0.53722578 0.46119323 -1.81691754 0 0 0 0
0.22445098 -0.60603571 -1.83979416 0 0 0 0
0.08839719 0.57702637 -1.86057150 0 0 0 0
-0.31865370 -0.41166666 -1.87922597 0 0 0 0
0.41979793 0.18014948 -1.89573622 0 0 0 0
-0.39051816 0.03971181 -1.91008341 0 0 0 0
0.26904359 -0.18725987 -1.92225111 0 0 0 0
-0.11568597 0.23584190 -1.93222547 0 0 0 0
-0.00999198 -0.19702502 -1.93999517 0 0 0 0
0.06963494 0.11171893 -1.94555128 0 0 0 0
-0.05758410 -0.03196178 -1.94888747 0 0 0 0
0.00000000 0.00000000 -1.95000005 0 0 0 0
0.00000000 0.00000000 2.00000000 0 0 0 0
-0.05226711 0.03598328 1.99899304 0 0 0 0
0.04527025 -0.11849464 1.99597335 0 0 0 0
0.04482062 0.18475312 1.99094379 0 0 0 0
-0.18868971 -0.16881585 1.98390961 0 0 0 0
0.31346050 0.04000357 1.97487783 0 0 0 0
-0.33642644 0.17343988 1.96385741 0 0 0 0
0.20809259 -0.38838693 1.95085955 0 0 0 0
0.05567358 0.49920106 1.93589735 0 0 0 0
-0.36899117 -0.42583853 1.91898596 0 0 0 0
0.60406476 0.15673314 1.90014219 0 0 0 0
-0.64278764 0.23395556 1.87938523 0 0 0 0
0.43117076 -0.60549462 1.85673583 0 0 0 0
-0.01272230 0.80176014 1.83221686 0 0 0 0
-0.47614405 -0.71566856 1.80585313 0 0 0 0
0.85080564 0.34061119 1.77767086 0 0 0 0
-0.94850159 0.21422853 1.74769878 0 0 0 0
0.69706988 -0.75468630 1.71596682 0 0 0 0
-0.15388241 1.07027578 1.68250704 0 0 0 0
-0.50362468 -1.01616418 1.64735317 0 0 0 0
1.03622448 0.57653981 1.61054051 0 0 0 0
-1.23071980 0.11751950 1.57210624 0 0 0 0
0.98480773 -0.82635182 1.53208888 0 0 0 0
-0.35535297 1.28532016 1.49052894 0 0 0 0
-0.45140547 -1.30425048 1.44746804 0 0 0 0
1.14782286 0.84512407 1.40294981 0 0 0 0
-1.46844375 -0.04661416 1.35701883 0 0 0 0
1.27155399 -0.81717813 1.30972147 0 0 0 0
-0.59972084 1.43176401 1.26110530 0 0 0 0
-0.32595468 -1.55778730 1.21121943 0 0 0 0
1.17907274 1.12424350 1.16011381 0 0 0 0
-1.64422369 -0.26309440 1.10784018 0 0 0 0
1.53447926 -0.73041534 1.05445099 0 0 0 0
-0.86602539 1.50000000 1.00000000 0 0 0 0
-0.13971028 -1.75736201 0.94454217 0 0 0 0
1.12994254 1.39084482 0.88813323 0 0 0 0
-1.74557102 -0.51254588 0.83083004 0 0 0 0
1.75260437 -0.57561076 0.77269024 0 0 0 0
-1.13145804 1.48671842 0.71377242 0 0 0 0
0.08992990 -1.88786089 0.65413594 0 0 0 0
1.00689757 1.62280941 0.59384078 0 0 0 0
-1.76596797 -0.77286750 0.53294760 0 0 0 0
1.90849936 -0.36783311 0.47151786 0 0 0 0
-1.37321067 1.39517355 0.40961334 0 0 0 0
0.34202015 -1.93969262 0.34729636 0 0 0 0
0.82237339 1.80074656 0.28462967 0 0 0 0
-1.70539379 -1.02102470 0.22167639 0 0 0 0
1.98969555 -0.12644887 0.15849991 0 0 0 0
-1.57032549 1.23491764 0.09516383 0 0 0 0
0.59376597 -1.90956414 0.03173193 0 0 0 0
0.59376597 1.90956414 -0.03173193 0 0 0 0
-1.57032549 -1.23491764 -0.09516383 0 0 0 0
1.98969555 0.12644887 -0.15849991 0 0 0 0
-1.70539379 1.02102470 -0.22167639 0 0 0 0
0.82237339 -1.80074656 -0.28462967 0 0 0 0
0.34202015 1.93969262 -0.34729636 0 0 0 0
-1.37321067 -1.39517355 -0.40961334 0 0 0 0
1.90849936 0.36783311 -0.47151786 0 0 0 0
-1.76596797 0.77286750 -0.53294760 0 0 0 0
1.00689757 -1.62280941 -0.59384078 0 0 0 0
0.08992990 1.88786089 -0.65413594 0 0 0 0
-1.13145804 -1.48671842 -0.71377242 0 0 0 0
1.75260437 0.57561076 -0.77269024 0 0 0 0
-1.74557102 0.51254588 -0.83083004 0 0 0 0
1.12994254 -1.39084482 -0.88813323 0 0 0 0
-0.13971028 1.75736201 -0.94454217 0 0 0 0
-0.86602539 -1.50000000 -1.00000000 0 0 0 0
1.53447926 0.73041534 -1.05445099 0 0 0 0
-1.64422369 0.26309440 -1.10784018 0 0 0 0
1.17907274 -1.12424350 -1.16011381 0 0 0 0
-0.32595468 1.55778730 -1.21121943 0 0 0 0
-0.59972084 -1.43176401 -1.26110530 0 0 0 0
1.27155399 0.81717813 -1.30972147 0 0 0 0
-1.46844375 0.04661416 -1.35701883 0 0 0 0
1.14782286 -0.84512407 -1.40294981 0 0 0 0
-0.45140547 1.30425048 -1.44746804 0 0 0 0
-0.35535297 -1.28532016 -1.49052894 0 0 0 0
0.98480773 0.82635182 -1.53208888 0 0 0 0
-1.23071980 -0.11751950 -1.57210624 0 0 0 0
1.03622448 -0.57653981 -1.61054051 0 0 0 0
-0.50362468 1.01616418 -1.64735317 0 0 0 0
-0.15388241 -1.07027578 -1.68250704 0 0 0 0
0.69706988 0.75468630 -1.71596682 0 0 0 0
-0.94850159 -0.21422853 -1.74769878 0 0 0 0
0.85080564 -0.34061119 -1.77767086 0 0 0 0
-0.47614405 0.71566856 -1.80585313 0 0 0 0
-0.01272230 -0.80176014 -1.83221686 0 0 0 0
0.43117076 0.60549462 -1.85673583 0 0 0 0
-0.64278764 -0.23395556 -1.87938523 0 0 0 0
0.60406476 -0.15673314 -1.90014219 0 0 0 0
-0.36899117 0.42583853 -1.91898596 0 0 0 0
0.05567358 -0.49920106 -1.93589735 0 0 0 0
0.20809259 0.38838693 -1.95085955 0 0 0 0
-0.33642644 -0.17343988 -1.96385741 0 0 0 0
0.31346050 -0.04000357 -1.97487783 0 0 0 0
-0.18868971 0.16881585 -1.98390961 0 0 0 0
0.04482062 -0.18475312 -1.99094379 0 0 0 0
0.04527025 0.11849464 -1.99597335 0 0 0 0
-0.05226711 -0.03598328 -1.99899304 0 0 0 0
0.00000000 0.00000000 -2.00000000 0 0 0 0
0.00000000 0.00000000 2.04999995 0 0 0 0
-0.05012536 0.03736097 2.04904652 0 0 0 0
0.03570829 -0.11976625 2.04618692 0 0 0 0
0.06436501 0.17591336 2.04142404 0 0 0 0
-0.20875287 -0.13662426 2.03476191 0 0 0 0
0.31084451 -0.01898563 2.02620721 0 0 0 0
-0.28497425 0.24077223 2.01576734 0 0 0 0
0.09850074 -0.42305440 2.00345278 0 0 0 0
0.19821765 0.45386994 1.98927414 0 0 0 0
-0.48265710 -0.27540031 1.97324526 0 0 0 0
0.61104256 -0.07492150 1.95538068 0 0 0 0
-0.48806363 0.46622971 1.93569720 0 0 0 0
0.12250221 -0.72338194 1.91421306 0 0 0 0
0.36050704 0.70487535 1.89094830 0 0 0 0
-0.76169658 -0.37502566 1.86592448 0 0 0 0
0.89040220 -0.16479221 1.83916485 0 0 0 0
-0.65326315 0.70507646 1.81069446 0 0 0 0
0.10825124 -1.01017821 1.78053963 0 0 0 0
0.54428601 0.92097837 1.74872863 0 0 0 0
-1.03552103 -0.43355960 1.71529078 0 0 0 0
1.13961983 -0.28372893 1.68025732 0 0 0 0
-0.77629453 0.94775832 1.64366078 0 0 0 0
0.05829704 -1.27332544 1.60553539 0 0 0 0
0.74131465 1.09583688 1.56591642 0 0 0 0
-1.29377103 -0.45112878 1.52484071 0 0 0 0
1.35067463 -0.42523709 1.48234665 0 0 0 0
-0.85489929 1.18424702 1.43847358 0 0 0 0
-0.02293226 -1.50359368 1.39326239 0 0 0 0
0.94243383 1.22497714 1.34675527 0 0 0 0
-1.52653170 -0.42989823 1.29899526 0 0 0 0
1.51716518 -0.58150041 1.25002682 0 0 0 0
-0.88891292 1.40448725 1.19989562 0 0 0 0
-0.12934871 -1.69303751 1.14864826 0 0 0 0
1.13798261 1.30596745 1.09633243 0 0 0 0
-1.72476685 -0.37394807 1.04299664 0 0 0 0
1.63457346 -0.74374759 0.98869067 0 0 0 0
-0.88024431 1.59884739 0.93346500 0 0 0 0
-0.25350115 -1.83533573 0.87737101 0 0 0 0
1.31824160 1.33850026 0.82046086 0 0 0 0
-1.88071752 -0.28906232 0.76278746 0 0 0 0
1.70044446 -0.90266448 0.70440453 0 0 0 0
-0.83276004 1.75855422 0.64536631 0 0 0 0
-0.38693538 -1.92605925 0.58572775 0 0 0 0
1.47388136 1.32437789 0.52554429 0 0 0 0
-1.98824298 -0.18243904 0.46487200 0 0 0 0
1.71447372 -1.04883349 0.40376726 0 0 0 0
-0.75207955 1.87609065 0.34228694 0 0 0 0
-0.52060181 -1.96285510 0.28048819 0 0 0 0
1.59639549 1.26740301 0.21842852 0 0 0 0
-2.04309249 -0.06233549 0.15616567 0 0 0 0
1.67849910 -1.17317963 0.09375755 0 0 0 0
-0.64529127 1.94553900 0.03126221 0 0 0 0
-0.64529127 -1.94553900 -0.03126221 0 0 0 0
1.67849910 1.17317963 -0.09375755 0 0 0 0
-2.04309249 0.06233549 -0.15616567 0 0 0 0
1.59639549 -1.26740301 -0.21842852 0 0 0 0
-0.52060181 1.96285510 -0.28048819 0 0 0 0
-0.75207955 -1.87609065 -0.34228694 0 0 0 0
1.71447372 1.04883349 -0.40376726 0 0 0 0
-1.98824298 0.18243904 -0.46487200 0 0 0 0
1.47388136 -1.32437789 -0.52554429 0 0 0 0
-0.38693538 1.92605925 -0.58572775 0 0 0 0
-0.83276004 -1.75855422 -0.64536631 0 0 0 0
1.70044446 0.90266448 -0.70440453 0 0 0 0
-1.88071752 0.28906232 -0.76278746 0 0 0 0
1.31824160 -1.33850026 -0.82046086 0 0 0 0
-0.25350115 1.83533573 -0.87737101 0 0 0 0
-0.88024431 -1.59884739 -0.93346500 0 0 0 0
1.63457346 0.74374759 -0.98869067 0 0 0 0
-1.72476685 0.37394807 -1.04299664 0 0 0 0
1.13798261 -1.30596745 -1.09633243 0 0 0 0
-0.12934871 1.69303751 -1.14864826 0 0 0 0
-0.88891292 -1.40448725 -1.19989562 0 0 0 0
1.51716518 0.58150041 -1.25002682 0 0 0 0
-1.52653170 0.42989823 -1.29899526 0 0 0 0
0.94243383 -1.22497714 -1.34675527 0 0 0 0
-0.02293226 1.50359368 -1.39326239 0 0 0 0
-0.85489929 -1.18424702 -1.43847358 0 0 0 0
1.35067463 0.42523709 -1.48234665 0 0 0 0
-1.29377103 0.45112878 -1.52484071 0 0 0 0
0.74131465 -1.09583688 -1.56591642 0 0 0 0
0.05829704 1.27332544 -1.60553539 0 0 0 0
-0.77629453 -0.94775832 -1.64366078 0 0 0 0
1.13961983 0.28372893 -1.68025732 0 0 0 0
-1.03552103 0.43355960 -1.71529078 0 0 0 0
0.54428601 -0.92097837 -1.74872863 0 0 0 0
0.10825124 1.01017821 -1.78053963 0 0 0 0
-0.65326315 -0.70507646 -1.81069446 0 0 0 0
0.89040220 0.16479221 -1.83916485 0 0 0 0
-0.76169658 0.37502566 -1.86592448 0 0 0 0
0.36050704 -0.70487535 -1.89094830 0 0 0 0
0.12250221 0.72338194 -1.91421306 0 0 0 0
-0.48806363 -0.46622971 -1.93569720 0 0 0 0
0.61104256 0.07492150 -1.95538068 0 0 0 0
-0.48265710 0.27540031 -1.97324526 0 0 0 0
0.19821765 -0.45386994 -1.98927414 0 0 0 0
0.09850074 0.42305440 -2.00345278 0 0 0 0
-0.28497425 -0.24077223 -2.01576734 0 0 0 0
0.31084451 0.01898563 -2.02620721 0 0 0 0
-0.20875287 0.13662426 -2.03476191 0 0 0 0
0.06436501 -0.17591336 -2.04142404 0 0 0 0
0.03570829 0.11976625 -2.04618692 0 0 0 0
-0.05012536 -0.03736097 -2.04904652 0 0 0 0
0.00000000 0.00000000 -2.04999995 0 0 0 0
0.00000000 0.00000000 2.09999990 0 0 0 0
-0.04547566 0.03992942 2.09912777 0 0 0 0
0.01564767 -0.11996900 2.09651208 0 0 0 0
0.10102530 0.15060703 2.09215474 0 0 0 0
-0.23348668 -0.06196190 2.08605957 0 0 0 0
0.27008086 -0.13419870 2.07823181 0 0 0 0
-0.13707872 0.33433920 2.06867743 0 0 0 0
-0.13694000 -0.39790958 2.05740499 0 0 0 0
0.41677919 0.23796552 2.04442358 0 0 0 0
-0.52772093 0.10793814 2.02974391 0 0 0 0
0.36052924 -0.47573856 2.01337814 0 0 0 0
0.04713275 0.65299058 1.99533999 0 0 0 0
-0.50701696 -0.49976251 1.97564447 0 0 0 0
0.76728094 0.04427812 1.95430791 0 0 0 0
-0.64992267 0.50744015 1.93134797 0 0 0 0
0.16387513 -0.86447704 1.90678382 0 0 0 0
0.47498149 0.80473709 1.88063574 0 0 0 0
-0.93901145 -0.30809826 1.85292554 0 0 0 0
0.95762831 -0.40884373 1.82367623 0 0 0 0
-0.47236812 0.98607039 1.79291201 0 0 0 0
-0.30949661 -1.10194969 1.76065862 0 0 0 0
1.00177372 0.65124381 1.72694266 0 0 0 0
-1.23122537 0.17867015 1.69179225 0 0 0 0
0.83861178 -0.98332208 1.65523648 0 0 0 0
0.01930316 1.33938384 1.61730587 0 0 0 0
-0.92910677 -1.02789879 1.57803190 0 0 0 0
1.42097831 0.16455115 1.53744709 0 0 0 0
-1.21230233 0.83877760 1.49558520 0 0 0 0
0.36785904 -1.47138667 1.45248103 0 0 0 0
0.71326691 1.38502944 1.40817034 0 0 0 0
-1.48698151 -0.58477515 1.36268997 0 0 0 0
1.53953624 -0.55476844 1.31607759 0 0 0 0
-0.80884057 1.46526754 1.26837218 0 0 0 0
-0.36667192 -1.66975915 1.21961308 0 0 0 0
1.40497839 1.03320265 1.16984093 0 0 0 0
-1.77033138 0.15345582 1.11909711 0 0 0 0
1.25085032 -1.30613184 1.06742370 0 0 0 0
-0.07945862 1.83677387 1.01486361 0 0 0 0
-1.17003965 -1.45485425 0.96146047 0 0 0 0
1.86565793 0.32588649 0.90725875 0 0 0 0
-1.63860643 0.99927354 0.85230345 0 0 0 0
0.57908541 -1.85473037 0.79664016 0 0 0 0
0.79758567 1.79604864 0.74031514 0 0 0 0
-1.80299890 -0.83198160 0.68337518 0 0 0 0
1.92188179 -0.56978947 0.62586761 0 0 0 0
-1.07740855 1.71077418 0.56784010 0 0 0 0
-0.32160264 -2.01175141 0.50934094 0 0 0 0
1.57966673 1.30834854 0.45041871 0 0 0 0
-2.06239867 0.05945881 0.39112234 0 0 0 0
1.51817036 -1.41253877 0.33150107 0 0 0 0
-0.20970598 2.07177567 0.27160445 0 0 0 0
-1.21341288 -1.70085406 0.21148224 0 0 0 0
2.03911853 0.47868434 0.15118434 0 0 0 0
-1.85119414 0.98734123 0.09076086 0 0 0 0
0.74023825 -1.96497619 0.03026200 0 0 0 0
0.74023825 1.96497619 -0.03026200 0 0 0 0
-1.85119414 -0.98734123 -0.09076086 0 0 0 0
2.03911853 -0.47868434 -0.15118434 0 0 0 0
-1.21341288 1.70085406 -0.21148224 0 0 0 0
-0.20970598 -2.07177567 -0.27160445 0 0 0 0
1.51817036 1.41253877 -0.33150107 0 0 0 0
-2.06239867 -0.05945881 -0.39112234 0 0 0 0
1.57966673 -1.30834854 -0.45041871 0 0 0 0
-0.32160264 2.01175141 -0.50934094 0 0 0 0
-1.07740855 -1.71077418 -0.56784010 0 0 0 0
1.92188179 0.56978947 -0.62586761 0 0 0 0
-1.80299890 0.83198160 -0.68337518 0 0 0 0
0.79758567 -1.79604864 -0.74031514 0 0 0 0
0.57908541 1.85473037 -0.79664016 0 0 0 0
-1.63860643 -0.99927354 -0.85230345 0 0 0 0
1.86565793 -0.32588649 -0.90725875 0 0 0 0
-1.17003965 1.45485425 -0.96146047 0 0 0 0
-0.07945862 -1.83677387 -1.01486361 0 0 0 0
1.25085032 1.30613184 -1.06742370 0 0 0 0
-1.77033138 -0.15345582 -1.11909711 0 0 0 0
1.40497839 -1.03320265 -1.16984093 0 0 0 0
-0.36667192 1.66975915 -1.21961308 0 0 0 0
-0.80884057 -1.46526754 -1.26837218 0 0 0 0
1.53953624 0.55476844 -1.31607759 0 0 0 0
-1.48698151 0.58477515 -1.36268997 0 0 0 0
0.71326691 -1.38502944 -1.40817034 0 0 0 0
0.36785904 1.47138667 -1.45248103 0 0 0 0
-1.21230233 -0.83877760 -1.49558520 0 0 0 0
1.42097831 -0.16455115 -1.53744709 0 0 0 0
-0.92910677 1.02789879 -1.57803190 0 0 0 0
0.01930316 -1.33938384 -1.61730587 0 0 0 0
0.83861178 0.98332208 -1.65523648 0 0 0 0
-1.23122537 -0.17867015 -1.69179225 0 0 0 0
1.00177372 -0.65124381 -1.72694266 0 0 0 0
-0.30949661 1.10194969 -1.76065862 0 0 0 0
-0.47236812 -0.98607039 -1.79291201 0 0 0 0
0.95762831 0.40884373 -1.82367623 0 0 0 0
-0.93901145 0.30809826 -1.85292554 0 0 0 0
0.47498149 -0.80473709 -1.88063574 0 0 0 0
0.16387513 0.86447704 -1.90678382 0 0 0 0
-0.64992267 -0.50744015 -1.93134797 0 0 0 0
0.76728094 -0.04427812 -1.95430791 0 0 0 0
-0.50701696 0.49976251 -1.97564447 0 0 0 0
0.04713275 -0.65299058 -1.99533999 0 0 0 0
0.36052924 0.47573856 -2.01337814 0 0 0 0
-0.52772093 -0.10793814 -2.02974391 0 0 0 0
0.41677919 -0.23796552 -2.04442358 0 0 0 0
-0.13694000 0.39790958 -2.05740499 0 0 0 0
-0.13707872 -0.33433920 -2.06867743 0 0 0 0
0.27008086 0.13419870 -2.07823181 0 0 0 0
-0.23348668 0.06196190 -2.08605957 0 0 0 0
0.10102530 -0.15060703 -2.09215474 0 0 0 0
0.01564767 0.11996900 -2.09651208 0 0 0 0
-0.04547566 -0.03992942 -2.09912777 0 0 0 0
0.00000000 0.00000000 -2.09999990 0 0 0 0
0.00000000 0.00000000 2.15000010 0 0 0 0
-0.04124156 0.04180877 2.14919782 0 0 0 0
-0.00160366 -0.11739886 2.14679170 0 0 0 0
0.12697807 0.12187862 2.14278364 0 0 0 0
-0.23438175 0.00640448 2.13717675 0 0 0 0
0.19982310 -0.21395829 2.12997484 0 0 0 0
0.01437200 0.35053438 2.12118340 0 0 0 0
-0.30242890 -0.27481180 2.11080909 0 0 0 0
0.46544597 -0.02545562 2.09885979 0 0 0 0
-0.34659871 0.39205822 2.08534408 0 0 0 0
-0.03958490 -0.57871079 2.07027221 0 0 0 0
0.48250490 0.41495600 2.05365539 0 0 0 0
-0.68992996 0.05666986 2.03550601 0 0 0 0
0.47967482 -0.57341933 2.01583791 0 0 0 0
0.07660147 0.79871297 1.99466538 0 0 0 0
-0.66444510 -0.54056615 1.97200429 0 0 0 0
0.90467948 -0.09925220 1.94787169 0 0 0 0
-0.59746158 0.75522065 1.92228544 0 0 0 0
-0.12447671 -1.00746059 1.89526486 0 0 0 0
0.84538078 0.65021366 1.86682975 0 0 0 0
-1.10670066 0.15211251 1.83700168 0 0 0 0
0.69869661 -0.93455833 1.80580282 0 0 0 0
0.18198089 1.20205867 1.77325630 0 0 0 0
-1.02238572 -0.74280673 1.73938656 0 0 0 0
1.29320931 -0.21388778 1.70421875 0 0 0 0
-0.78246242 1.10849667 1.66777933 0 0 0 0
-0.24762473 -1.37984478 1.63009524 0 0 0 0
1.19252765 0.81760454 1.59119475 0 0 0 0
-1.46167564 0.28297004 1.55110681 0 0 0 0
0.84819657 -1.27411973 1.50986135 0 0 0 0
0.31968990 1.53843224 1.46748924 0 0 0 0
-1.35292017 -0.87422431 1.42402208 0 0 0 0
1.60986555 -0.35753947 1.37949216 0 0 0 0
-0.89569587 1.42858398 1.33393288 0 0 0 0
-0.39626437 -1.67574823 1.28737807 0 0 0 0
1.50077510 0.91264153 1.23986268 0 0 0 0
-1.73587573 0.43560177 1.19142199 0 0 0 0
0.92511320 -1.56916881 1.14209235 0 0 0 0
